x,y,z,I
808501.03,6484526.96,500.64,2584.0
808526.5700000001,6484545.98,500.64,3494.0
808483.48,6484528.44,500.64,2836.0
808523.4500000001,6484531.88,500.64,4480.0
808523.24,6484541.41,500.64,2995.0
808387.74,6484533.8100000005,500.64,1027.0
808530.25,6484569.640000001,500.64,3805.0
808394.11,6484526.92,500.64,1897.0
808383.52,6484524.8100000005,500.64,3336.0
808397.03,6484528.850000001,500.64,2167.0
808392.71,6484527.640000001,500.64,2602.0
808523.85,6484535.58,500.64,1676.0
808521.35,6484522.96,500.64,3396.0
808384.34,6484521.62,500.64,1094.0
808394.73,6484528.79,500.64,3551.0
808394.41,6484526.71,500.64,1909.0
808393.54,6484526.8,500.64,1793.0
808393.68,6484527.640000001,500.64,2100.0
808385.76,6484525.21,500.64,810.0
808394.0700000001,6484527.74,500.64,2808.0
808521.61,6484520.41,500.64,3558.0
808504.34,6484517.75,500.64,4030.0
808521.71,6484519.140000001,500.64,3302.0
808495.3200000001,6484574.08,500.64,983.0
808490.8300000001,6484535.350000001,500.64,1890.0
808482.04,6484527.47,500.64,4417.0
808485.79,6484531.11,500.64,3252.0
808485.01,6484528.41,500.64,1947.0
808486.92,6484528.97,500.64,2992.0
808476.49,6484526.29,500.64,4322.0
808494.8300000001,6484530.17,500.65000000000003,3522.0
808524.21,6484577.92,500.65000000000003,4176.0
808501.9,6484523.74,500.65000000000003,3946.0
808469.9400000001,6484520.100000001,500.65000000000003,2781.0
808402.39,6484529.92,500.65000000000003,1074.0
808516.5800000001,6484565.66,500.65000000000003,1479.0
808485.04,6484529.88,500.65000000000003,1424.0
808323.37,6484516.890000001,500.65000000000003,1938.0
808523.35,6484528.9,500.65000000000003,3586.0
808487.25,6484528.79,500.65000000000003,3947.0
808504.71,6484516.34,500.65000000000003,3197.0
808500.93,6484526.2700000005,500.65000000000003,3004.0
808521.92,6484540.100000001,500.65000000000003,4386.0
808493.79,6484549.32,500.65000000000003,3227.0
808470.4,6484520.69,500.65000000000003,2580.0
808401.16,6484530.390000001,500.65000000000003,2552.0
808495.53,6484530.15,500.65000000000003,4001.0
808457.1,6484518.100000001,500.65000000000003,2557.0
808385.24,6484522.03,500.65000000000003,3023.0
808478.1900000001,6484526.4,500.65000000000003,3535.0
808469.48,6484519.44,500.65000000000003,4793.0
808479.42,6484528.24,500.65000000000003,1515.0
808526.65,6484545.0200000005,500.65000000000003,3685.0
808469.8,6484519.5200000005,500.65000000000003,2880.0
808401.09,6484530.17,500.65000000000003,1448.0
808456.17,6484583.66,500.65000000000003,4252.0
808502.63,6484522.7700000005,500.65000000000003,3908.0
808479.14,6484527.96,500.65000000000003,1799.0
808400.98,6484529.69,500.65000000000003,898.0
808463.47,6484519.83,500.65000000000003,4112.0
808383.0700000001,6484524.21,500.65000000000003,4861.0
808496.78,6484530.28,500.65000000000003,3824.0
808501.56,6484524.91,500.65000000000003,3708.0
808521.67,6484520.83,500.65000000000003,3744.0
808523.42,6484536.33,500.65000000000003,3262.0
808512.28,6484579.21,500.65000000000003,3052.0
808478.74,6484527.43,500.65000000000003,2954.0
808477.21,6484526.11,500.65000000000003,3706.0
808408.51,6484517.47,500.65000000000003,622.0
808490.54,6484536.26,500.65000000000003,1933.0
808523.61,6484537.07,500.65000000000003,3694.0
808500.73,6484526.58,500.65000000000003,3539.0
808481.05,6484527.29,500.65000000000003,4026.0
808480.0700000001,6484527.58,500.65000000000003,2697.0
808480.86,6484527.67,500.65000000000003,3093.0
808463.42,6484520.29,500.65000000000003,4531.0
808521.84,6484521.93,500.65000000000003,3777.0
808474.75,6484546.87,500.65000000000003,1460.0
808469.34,6484519.28,500.65000000000003,4819.0
808523.01,6484527.75,500.65000000000003,4287.0
808494.52,6484530.09,500.65000000000003,3881.0
808362.05,6484518.33,500.65000000000003,399.0
808357.93,6484583.98,500.66,2388.0
808524.01,6484529.99,500.66,3457.0
808484.6900000001,6484529.99,500.66,2082.0
808466.9,6484520.55,500.66,4287.0
808533.51,6484549.17,500.66,3004.0
808500.98,6484528.17,500.66,2861.0
808522.16,6484521.4,500.66,3692.0
808503.4500000001,6484519.76,500.66,3065.0
808385.52,6484526.17,500.66,2530.0
808522.8300000001,6484540.17,500.66,1014.0
808523.48,6484528.0600000005,500.66,3577.0
808521.96,6484520.47,500.66,3304.0
808524.77,6484534.23,500.66,960.0
808479.13,6484526.69,500.66,2957.0
808482.87,6484527.32,500.66,2106.0
808492.25,6484529.47,500.66,3859.0
808472.16,6484522.66,500.66,3565.0
808468.74,6484520.16,500.66,4683.0
808469.62,6484519.05,500.66,3869.0
808403.22,6484536.28,500.66,2013.0
808522.05,6484524.88,500.66,3340.0
808501.22,6484525.0,500.66,3517.0
808521.64,6484517.24,500.66,2022.0
808521.72,6484522.3100000005,500.66,3407.0
808522.25,6484525.74,500.66,3408.0
808523.81,6484529.75,500.66,3796.0
808501.03,6484528.11,500.66,1686.0
808470.1,6484519.62,500.66,2520.0
808394.3300000001,6484527.61,500.66,2313.0
808504.15,6484517.45,500.66,3632.0
808485.36,6484530.69,500.66,2762.0
808524.86,6484533.86,500.66,3306.0
808521.6,6484523.99,500.66,3666.0
808527.66,6484546.100000001,500.66,3409.0
808474.84,6484543.86,500.66,1013.0
808521.99,6484524.96,500.66,3330.0
808384.9,6484521.5600000005,500.66,1798.0
808522.02,6484518.5200000005,500.66,3224.0
808471.03,6484520.88,500.66,2616.0
808473.41,6484523.5,500.66,3725.0
808469.89,6484519.59,500.66,3121.0
808474.72,6484524.99,500.66,3497.0
808499.36,6484530.04,500.66,3659.0
808517.02,6484574.76,500.66,3223.0
808473.17,6484523.53,500.66,3540.0
808470.43,6484520.140000001,500.66,2591.0
808471.76,6484522.26,500.66,2506.0
808506.0,6484534.45,500.66,3239.0
808488.85,6484557.49,500.66,2531.0
808507.59,6484595.8100000005,500.67,2388.0
808491.64,6484529.29,500.67,3989.0
808511.85,6484581.87,500.67,2425.0
808524.0,6484530.15,500.67,4011.0
808479.99,6484526.45,500.67,3588.0
808475.77,6484525.18,500.67,3622.0
808398.01,6484528.44,500.67,1649.0
808505.86,6484607.75,500.67,2004.0
808527.4,6484544.59,500.67,3882.0
808522.29,6484520.38,500.67,3376.0
808525.12,6484534.600000001,500.67,2571.0
808508.16,6484596.16,500.67,2308.0
808390.73,6484527.19,500.67,936.0
808495.5800000001,6484529.47,500.67,2886.0
808473.17,6484522.97,500.67,3406.0
808482.26,6484527.11,500.67,3042.0
808490.3200000001,6484528.93,500.67,4302.0
808495.23,6484529.26,500.67,3309.0
808522.05,6484522.2,500.67,3635.0
808523.97,6484537.88,500.67,1353.0
808525.56,6484542.57,500.67,3272.0
808493.11,6484529.09,500.67,3868.0
808491.27,6484529.13,500.67,4259.0
808305.11,6484532.59,500.67,537.0
808522.04,6484522.24,500.67,3265.0
808473.5,6484523.44,500.67,3318.0
808523.99,6484531.38,500.67,3404.0
808461.71,6484519.11,500.67,2785.0
808498.1900000001,6484529.46,500.67,3152.0
808469.73,6484518.67,500.67,4703.0
808472.8300000001,6484522.38,500.67,3675.0
808519.63,6484564.9,500.67,1707.0
808494.5800000001,6484544.7700000005,500.67,4219.0
808487.73,6484548.18,500.67,1697.0
808486.24,6484528.18,500.67,4395.0
808400.47,6484530.63,500.67,453.0
808521.8200000001,6484524.61,500.67,3052.0
808385.87,6484523.36,500.67,3440.0
808532.5700000001,6484548.43,500.67,4166.0
808495.26,6484529.38,500.67,3376.0
808523.65,6484602.18,500.67,3910.0
808509.31,6484589.17,500.67,3698.0
808512.98,6484569.5200000005,500.67,3602.0
808524.4500000001,6484529.17,500.67,3737.0
808390.39,6484527.03,500.67,2119.0
808513.72,6484568.11,500.68,3561.0
808491.77,6484528.88,500.68,4374.0
808474.9,6484524.41,500.68,3743.0
808473.96,6484523.73,500.68,3175.0
808499.27,6484528.2,500.68,3985.0
808513.1,6484570.5600000005,500.68,3164.0
808509.64,6484589.11,500.68,3118.0
808504.41,6484516.140000001,500.68,3862.0
808474.5,6484524.05,500.68,3378.0
808500.3200000001,6484525.71,500.68,3602.0
808525.65,6484543.36,500.68,2844.0
808529.37,6484578.62,500.68,1795.0
808524.1,6484527.92,500.68,4203.0
808523.3,6484526.15,500.68,3567.0
808522.04,6484523.11,500.68,3820.0
808525.18,6484542.3100000005,500.68,1983.0
808534.14,6484549.05,500.68,3533.0
808528.52,6484559.7700000005,500.68,1040.0
808383.29,6484523.48,500.68,4302.0
808370.43,6484574.5,500.68,1441.0
808457.86,6484590.640000001,500.68,2296.0
808510.23,6484583.96,500.68,2848.0
808495.23,6484545.44,500.68,3990.0
808522.97,6484525.16,500.68,3614.0
808482.4,6484526.9,500.68,3942.0
808490.1900000001,6484557.86,500.68,2648.0
808522.37,6484519.0,500.68,3358.0
808473.17,6484522.72,500.68,3481.0
808496.16,6484529.22,500.68,3590.0
808493.52,6484528.5,500.68,3509.0
808474.25,6484524.21,500.68,3444.0
808509.93,6484589.32,500.68,3443.0
808525.16,6484535.84,500.68,3454.0
808390.16,6484527.04,500.68,470.0
808450.09,6484519.3,500.68,801.0
808528.2000000001,6484573.71,500.68,879.0
808504.29,6484536.9,500.68,2329.0
808476.98,6484525.350000001,500.68,3399.0
808469.16,6484518.47,500.68,5164.0
808488.99,6484566.16,500.68,1952.0
808478.98,6484546.49,500.68,2033.0
808526.42,6484544.37,500.68,3811.0
808474.29,6484523.65,500.69,3456.0
808523.31,6484520.78,500.69,3102.0
808522.99,6484524.74,500.69,3566.0
808524.62,6484538.03,500.69,1889.0
808525.87,6484542.5,500.69,3493.0
808459.47,6484518.34,500.69,1915.0
808524.0,6484527.55,500.69,3830.0
808524.0,6484527.55,500.69,3830.0
808496.79,6484529.390000001,500.69,2970.0
808464.72,6484521.79,500.69,3147.0
808500.15,6484524.66,500.69,3770.0
808495.1900000001,6484544.94,500.69,3650.0
808490.12,6484561.41,500.69,2505.0
808524.4500000001,6484527.84,500.69,3619.0
808504.73,6484607.7700000005,500.69,2583.0
808522.91,6484524.28,500.69,3300.0
808503.17,6484519.05,500.69,3787.0
808524.3200000001,6484530.04,500.69,3562.0
808477.31,6484525.24,500.69,3364.0
808524.9,6484542.21,500.69,2728.0
808498.8200000001,6484528.36,500.69,3829.0
808503.8200000001,6484516.890000001,500.69,3237.0
808470.4500000001,6484552.51,500.69,3658.0
808528.55,6484568.36,500.69,722.0
808395.23,6484527.99,500.69,2625.0
808384.5700000001,6484524.97,500.69,3978.0
808496.47,6484529.3,500.69,2937.0
808522.23,6484523.05,500.69,3505.0
808522.8200000001,6484519.8,500.69,3880.0
808522.78,6484517.96,500.69,3589.0
808502.42,6484521.41,500.69,4084.0
808503.92,6484516.83,500.69,3512.0
808490.77,6484535.82,500.69,9627.0
808470.96,6484519.8,500.69,2492.0
808367.01,6484589.3,500.69,1440.0
808498.9500000001,6484528.71,500.69,3568.0
808495.43,6484528.8100000005,500.69,3334.0
808525.27,6484594.17,500.69,2713.0
808480.06,6484525.96,500.69,3249.0
808492.6,6484528.76,500.69,3505.0
808483.9,6484527.37,500.7,3682.0
808485.72,6484572.68,500.7,2439.0
808525.11,6484528.890000001,500.7,4029.0
808400.64,6484529.84,500.7,795.0
808463.53,6484519.41,500.7,2560.0
808441.11,6484537.68,500.7,778.0
808485.01,6484530.46,500.7,2039.0
808524.9400000001,6484539.88,500.7,1442.0
808504.06,6484516.16,500.7,3902.0
808503.42,6484517.69,500.7,3556.0
808524.96,6484536.69,500.7,2414.0
808485.86,6484527.65,500.7,2640.0
808492.34,6484528.57,500.7,3803.0
808472.04,6484520.62,500.7,2867.0
808468.6900000001,6484518.73,500.7,4198.0
808512.12,6484579.29,500.7,3704.0
808500.59,6484524.29,500.7,2229.0
808390.75,6484527.29,500.7,2552.0
808519.15,6484520.640000001,500.7,1791.0
808524.49,6484578.3100000005,500.7,1869.0
808523.3300000001,6484524.61,500.7,3553.0
808513.46,6484572.600000001,500.7,2303.0
808522.15,6484518.100000001,500.7,2789.0
808525.47,6484533.640000001,500.7,3567.0
808525.1900000001,6484538.11,500.7,1503.0
808523.4,6484521.59,500.7,3564.0
808522.93,6484516.99,500.7,3549.0
808522.71,6484518.93,500.7,3384.0
808501.1900000001,6484527.74,500.7,2843.0
808525.34,6484540.59,500.7,953.0
808468.49,6484519.11,500.7,4088.0
808523.3300000001,6484524.8100000005,500.7,3737.0
808528.02,6484545.21,500.7,3679.0
808499.21,6484524.84,500.7,3397.0
808473.34,6484521.58,500.7,3796.0
808480.47,6484525.63,500.7,3743.0
808498.74,6484522.87,500.7,728.0
808498.5700000001,6484528.390000001,500.7,3134.0
808525.15,6484532.57,500.7,4241.0
808499.67,6484525.890000001,500.7,3677.0
808362.0800000001,6484612.53,500.7,1431.0
808499.6900000001,6484525.46,500.7,3942.0
808473.38,6484521.05,500.7,3839.0
808482.72,6484526.3,500.7,3421.0
808479.41,6484525.7700000005,500.7,3281.0
808490.63,6484558.48,500.7,2589.0
808497.76,6484528.19,500.71000000000004,3286.0
808492.14,6484526.96,500.71000000000004,3559.0
808499.01,6484523.21,500.71000000000004,2380.0
808472.55,6484520.23,500.71000000000004,2550.0
808478.16,6484525.38,500.71000000000004,3576.0
808488.78,6484527.58,500.71000000000004,3467.0
808493.03,6484525.94,500.71000000000004,4148.0
808518.9,6484568.3,500.71000000000004,2173.0
808528.91,6484561.46,500.71000000000004,1555.0
808524.99,6484528.100000001,500.71000000000004,3862.0
808483.99,6484526.94,500.71000000000004,3873.0
808524.14,6484525.87,500.71000000000004,3524.0
808523.6,6484525.29,500.71000000000004,3313.0
808492.92,6484526.33,500.71000000000004,3819.0
808525.5,6484528.49,500.71000000000004,3413.0
808524.06,6484527.12,500.71000000000004,3716.0
808492.9400000001,6484525.82,500.71000000000004,4040.0
808499.99,6484530.68,500.71000000000004,1536.0
808525.84,6484533.65,500.71000000000004,4408.0
808523.8200000001,6484521.05,500.71000000000004,3044.0
808525.28,6484538.16,500.71000000000004,1601.0
808525.47,6484532.65,500.71000000000004,3723.0
808523.63,6484522.32,500.71000000000004,4326.0
808525.01,6484538.59,500.71000000000004,1424.0
808487.87,6484570.75,500.71000000000004,1460.0
808489.5800000001,6484528.15,500.71000000000004,4014.0
808406.77,6484551.8,500.71000000000004,867.0
808528.0,6484544.75,500.71000000000004,3817.0
808474.76,6484523.44,500.71000000000004,3256.0
808490.8300000001,6484527.25,500.71000000000004,4039.0
808493.68,6484527.51,500.71000000000004,3023.0
808471.5800000001,6484519.640000001,500.71000000000004,2578.0
808492.72,6484525.86,500.71000000000004,4095.0
808499.27,6484526.75,500.71000000000004,2410.0
808514.15,6484568.16,500.71000000000004,2861.0
808524.12,6484581.140000001,500.71000000000004,659.0
808508.91,6484592.82,500.71000000000004,4020.0
808525.8,6484570.51,500.71000000000004,4194.0
808503.84,6484612.49,500.71000000000004,2563.0
808478.71,6484525.23,500.71000000000004,3734.0
808492.34,6484527.140000001,500.71000000000004,4010.0
808525.28,6484539.94,500.71000000000004,1606.0
808524.56,6484578.22,500.71000000000004,3550.0
808524.85,6484529.71,500.71000000000004,3427.0
808523.68,6484524.54,500.71000000000004,3669.0
808522.72,6484523.5,500.71000000000004,3656.0
808528.35,6484579.17,500.71000000000004,2090.0
808395.35,6484528.29,500.71000000000004,2206.0
808523.3200000001,6484522.03,500.71000000000004,3601.0
808493.72,6484527.49,500.72,3531.0
808493.27,6484525.73,500.72,4056.0
808479.4,6484525.0200000005,500.72,3497.0
808484.24,6484527.16,500.72,1995.0
808488.4500000001,6484527.47,500.72,3214.0
808471.3300000001,6484518.67,500.72,2483.0
808498.73,6484520.59,500.72,3738.0
808492.35,6484527.850000001,500.72,3582.0
808497.81,6484527.38,500.72,3724.0
808496.0700000001,6484528.3100000005,500.72,3680.0
808524.26,6484524.5600000005,500.72,3534.0
808497.59,6484522.15,500.72,3765.0
808525.61,6484531.72,500.72,3497.0
808525.9400000001,6484533.19,500.72,4065.0
808513.14,6484593.86,500.72,3791.0
808363.66,6484604.65,500.72,1488.0
808481.79,6484526.0,500.72,4196.0
808481.35,6484525.0200000005,500.72,4077.0
808425.92,6484540.15,500.72,1673.0
808490.71,6484525.72,500.72,3841.0
808471.98,6484519.350000001,500.72,2681.0
808493.39,6484525.63,500.72,3718.0
808473.22,6484520.0200000005,500.72,3876.0
808354.9500000001,6484525.12,500.72,2538.0
808491.66,6484526.17,500.72,3463.0
808537.39,6484549.32,500.72,3600.0
808529.54,6484570.76,500.72,1846.0
808523.29,6484518.8,500.72,2994.0
808525.64,6484539.07,500.72,1253.0
808491.38,6484526.87,500.72,3877.0
808523.25,6484522.84,500.72,3301.0
808500.98,6484523.21,500.72,2808.0
808524.16,6484521.44,500.72,3011.0
808525.2000000001,6484597.600000001,500.72,1484.0
808473.74,6484521.67,500.72,3438.0
808525.2000000001,6484537.15,500.72,3915.0
808528.15,6484544.2700000005,500.72,3480.0
808491.99,6484526.09,500.72,3564.0
808488.93,6484527.43,500.72,3747.0
808525.76,6484531.4,500.72,3225.0
808473.87,6484522.09,500.72,2928.0
808513.31,6484592.93,500.72,2334.0
808493.0,6484549.03,500.72,3528.0
808524.52,6484542.13,500.72,887.0
808462.36,6484518.43,500.72,1889.0
808489.91,6484562.0,500.72,2538.0
808483.01,6484525.5200000005,500.72,3022.0
808492.38,6484525.36,500.72,3964.0
808498.2000000001,6484524.58,500.72,2352.0
808487.72,6484526.8100000005,500.73,3315.0
808497.49,6484522.29,500.73,2864.0
808475.66,6484523.23,500.73,3708.0
808473.16,6484519.58,500.73,4252.0
808489.5700000001,6484527.37,500.73,2500.0
808497.51,6484525.82,500.73,943.0
808525.63,6484538.71,500.73,1618.0
808502.71,6484520.26,500.73,3738.0
808525.93,6484530.390000001,500.73,3711.0
808525.16,6484529.7700000005,500.73,3351.0
808513.15,6484570.7,500.73,3058.0
808493.01,6484537.38,500.73,2084.0
808526.18,6484541.5200000005,500.73,3558.0
808526.06,6484535.7700000005,500.73,3481.0
808510.66,6484549.17,500.73,643.0
808524.27,6484516.7,500.73,3660.0
808494.5,6484526.33,500.73,3997.0
808503.5,6484516.8,500.73,3537.0
808524.0700000001,6484520.51,500.73,3553.0
808473.54,6484520.3,500.73,4032.0
808401.4,6484529.07,500.73,942.0
808384.77,6484533.0,500.73,2952.0
808390.66,6484526.94,500.73,2165.0
808526.09,6484533.99,500.73,3480.0
808513.79,6484569.97,500.73,3389.0
808526.1,6484534.890000001,500.73,3984.0
808363.21,6484607.05,500.73,1294.0
808499.05,6484522.79,500.73,1460.0
808490.63,6484526.12,500.73,4000.0
808525.53,6484530.9,500.73,3227.0
808490.25,6484525.17,500.73,4081.0
808525.34,6484527.99,500.73,3486.0
808537.74,6484549.26,500.73,3349.0
808472.03,6484518.47,500.73,2290.0
808524.34,6484524.4,500.73,3399.0
808526.27,6484538.94,500.73,2087.0
808472.98,6484519.19,500.73,3583.0
808461.36,6484518.28,500.73,1558.0
808495.56,6484527.05,500.73,3380.0
808526.16,6484535.51,500.73,3894.0
808481.29,6484524.5,500.73,3857.0
808526.15,6484530.92,500.73,3462.0
808482.37,6484525.32,500.73,3437.0
808525.9400000001,6484531.79,500.73,3776.0
808524.55,6484524.16,500.73,3610.0
808471.93,6484518.99,500.73,2703.0
808526.29,6484538.87,500.73,1419.0
808383.62,6484524.2,500.73,4396.0
808430.27,6484558.43,500.73,1220.0
808497.4,6484521.350000001,500.73,1662.0
808524.31,6484526.350000001,500.73,3195.0
808484.52,6484526.34,500.74,3618.0
808488.53,6484526.59,500.74,3304.0
808497.18,6484527.48,500.74,3990.0
808494.03,6484525.8,500.74,3791.0
808467.4500000001,6484519.05,500.74,3345.0
808512.4400000001,6484597.83,500.74,2167.0
808531.25,6484547.41,500.74,3266.0
808470.5800000001,6484516.54,500.74,2797.0
808490.72,6484522.5200000005,500.74,3891.0
808497.27,6484522.0600000005,500.74,3427.0
808528.0,6484560.66,500.74,4183.0
808494.36,6484581.62,500.74,3746.0
808514.53,6484528.11,500.74,1295.0
808522.78,6484516.55,500.74,1927.0
808524.71,6484526.98,500.74,3423.0
808529.3300000001,6484545.98,500.74,3176.0
808490.77,6484522.11,500.74,3730.0
808524.6,6484519.08,500.74,3167.0
808526.5,6484533.79,500.74,3740.0
808526.29,6484539.34,500.74,1470.0
808385.22,6484524.68,500.74,918.0
808488.01,6484570.26,500.74,1466.0
808524.75,6484516.12,500.74,3585.0
808496.86,6484525.69,500.74,4558.0
808499.3200000001,6484520.33,500.74,3574.0
808474.41,6484521.48,500.74,3454.0
808443.27,6484526.41,500.74,1280.0
808454.93,6484516.67,500.74,1910.0
808526.17,6484529.26,500.74,4231.0
808526.02,6484529.74,500.74,3896.0
808526.0,6484528.12,500.74,3316.0
808496.5,6484527.3,500.74,4000.0
808492.03,6484522.45,500.74,3779.0
808496.36,6484520.4,500.74,3394.0
808490.24,6484527.08,500.74,3865.0
808493.78,6484524.62,500.74,3747.0
808484.41,6484525.92,500.74,3705.0
808490.85,6484522.19,500.74,3829.0
808471.8,6484518.08,500.74,2540.0
808487.2000000001,6484524.73,500.74,2988.0
808493.29,6484524.67,500.74,3715.0
808499.5700000001,6484523.5600000005,500.74,3504.0
808499.15,6484520.22,500.74,4192.0
808492.5,6484521.640000001,500.74,4201.0
808479.3,6484542.2700000005,500.74,3489.0
808524.89,6484524.7,500.74,3383.0
808497.5700000001,6484525.5,500.74,3863.0
808479.3300000001,6484545.100000001,500.74,1998.0
808528.5,6484562.58,500.74,604.0
808490.64,6484526.47,500.74,3698.0
808489.71,6484526.26,500.74,4123.0
808488.76,6484525.11,500.74,3837.0
808483.76,6484525.600000001,500.74,3535.0
808494.15,6484521.28,500.74,3713.0
808498.78,6484519.600000001,500.74,3669.0
808493.21,6484521.100000001,500.74,3919.0
808477.06,6484524.3100000005,500.74,3358.0
808471.84,6484517.65,500.74,2697.0
808464.52,6484519.53,500.74,1951.0
808529.36,6484581.01,500.74,2194.0
808505.43,6484609.78,500.74,2431.0
808494.35,6484523.51,500.75,3405.0
808469.5800000001,6484516.22,500.75,3985.0
808496.75,6484524.67,500.75,2311.0
808500.76,6484520.65,500.75,3697.0
808488.41,6484557.850000001,500.75,3351.0
808497.96,6484525.45,500.75,785.0
808493.64,6484524.2700000005,500.75,3910.0
808494.16,6484523.2,500.75,4292.0
808489.73,6484524.850000001,500.75,3765.0
808491.74,6484524.28,500.75,4161.0
808526.6,6484541.86,500.75,3406.0
808494.46,6484524.0200000005,500.75,1210.0
808509.0,6484592.26,500.75,3656.0
808493.8200000001,6484523.29,500.75,4257.0
808530.01,6484560.3,500.75,1501.0
808351.76,6484524.09,500.75,1460.0
808526.39,6484531.29,500.75,3465.0
808497.3200000001,6484519.28,500.75,3447.0
808478.39,6484524.12,500.75,3608.0
808524.63,6484536.59,500.75,1178.0
808489.71,6484526.390000001,500.75,3728.0
808499.3200000001,6484523.140000001,500.75,2903.0
808526.6900000001,6484535.640000001,500.75,4007.0
808492.1,6484521.0600000005,500.75,3389.0
808385.12,6484524.2,500.75,1465.0
808495.9500000001,6484523.53,500.75,1475.0
808490.87,6484521.19,500.75,3347.0
808489.03,6484526.92,500.75,4069.0
808473.62,6484519.37,500.75,4078.0
808496.64,6484525.34,500.75,4123.0
808472.36,6484518.37,500.75,2465.0
808488.43,6484526.03,500.75,3862.0
808523.9400000001,6484517.9,500.75,2680.0
808491.43,6484520.88,500.75,3706.0
808476.42,6484523.53,500.75,3653.0
808492.36,6484522.54,500.75,3700.0
808502.01,6484519.2,500.75,3605.0
808502.1900000001,6484521.08,500.75,3536.0
808469.73,6484516.98,500.75,4144.0
808511.12,6484549.47,500.75,2993.0
808512.8200000001,6484577.59,500.75,3056.0
808526.11,6484528.8,500.75,3716.0
808486.1900000001,6484522.69,500.75,1423.0
808491.15,6484521.28,500.75,4028.0
808485.3,6484523.74,500.75,2098.0
808483.3200000001,6484525.28,500.75,3796.0
808489.0700000001,6484565.17,500.75,978.0
808370.67,6484572.74,500.75,1482.0
808527.35,6484543.25,500.75,3967.0
808498.96,6484519.72,500.75,3841.0
808485.64,6484522.96,500.75,3155.0
808479.67,6484524.0200000005,500.75,4140.0
808436.26,6484546.71,500.75,1476.0
808533.28,6484547.86,500.75,3290.0
808484.66,6484525.98,500.75,3425.0
808495.43,6484581.640000001,500.75,1839.0
808526.25,6484536.95,500.75,3688.0
808524.53,6484518.55,500.75,3512.0
808514.6,6484563.71,500.75,2984.0
808500.48,6484521.0200000005,500.75,2947.0
808493.06,6484520.23,500.75,3387.0
808492.49,6484520.91,500.75,4095.0
808488.68,6484526.55,500.75,3626.0
808385.28,6484524.48,500.75,1806.0
808502.48,6484518.86,500.75,2266.0
808484.98,6484523.84,500.75,3873.0
808494.34,6484521.66,500.75,3836.0
808529.8,6484546.390000001,500.75,3712.0
808471.87,6484516.94,500.76,2176.0
808525.5,6484524.350000001,500.76,3923.0
808524.1900000001,6484518.47,500.76,3251.0
808490.65,6484523.45,500.76,3854.0
808494.24,6484524.93,500.76,3781.0
808496.29,6484525.43,500.76,3706.0
808525.29,6484522.41,500.76,3464.0
808459.0800000001,6484517.48,500.76,1932.0
808518.77,6484521.0,500.76,1464.0
808476.47,6484523.49,500.76,3535.0
808445.05,6484539.25,500.76,773.0
808486.13,6484518.47,500.76,3083.0
808497.02,6484519.2,500.76,4110.0
808488.48,6484520.04,500.76,3427.0
808486.05,6484522.140000001,500.76,2925.0
808484.06,6484522.0600000005,500.76,3979.0
808475.3200000001,6484521.62,500.76,3523.0
808485.5800000001,6484525.74,500.76,2129.0
808438.8300000001,6484526.15,500.76,3958.0
808500.63,6484519.99,500.76,3526.0
808525.64,6484518.73,500.76,3258.0
808525.51,6484525.67,500.76,3410.0
808479.0,6484523.8100000005,500.76,3460.0
808487.0800000001,6484520.37,500.76,2143.0
808531.05,6484547.09,500.76,3375.0
808374.71,6484554.79,500.76,1276.0
808483.6900000001,6484524.21,500.76,4048.0
808489.3300000001,6484523.5600000005,500.76,3534.0
808497.17,6484522.38,500.76,1670.0
808499.99,6484523.49,500.76,3714.0
808392.52,6484527.0200000005,500.76,701.0
808485.74,6484519.0200000005,500.76,2864.0
808477.46,6484523.640000001,500.76,3553.0
808486.5700000001,6484520.98,500.76,4485.0
808486.81,6484521.46,500.76,3247.0
808527.0800000001,6484529.29,500.76,3640.0
808501.13,6484520.86,500.76,3382.0
808489.51,6484521.74,500.76,3747.0
808491.43,6484523.45,500.76,4156.0
808482.68,6484524.51,500.76,3415.0
808500.99,6484521.17,500.76,3195.0
808485.0,6484524.79,500.76,4387.0
808495.47,6484522.9,500.76,1350.0
808486.84,6484520.99,500.76,3442.0
808486.46,6484525.350000001,500.76,4280.0
808527.0700000001,6484528.59,500.76,3626.0
808530.65,6484566.23,500.76,593.0
808503.09,6484518.5,500.76,2862.0
808513.13,6484575.65,500.76,2740.0
808329.04,6484518.95,500.76,2700.0
808490.14,6484524.24,500.76,3990.0
808484.29,6484523.05,500.76,3808.0
808500.63,6484522.49,500.76,4180.0
808526.73,6484539.8100000005,500.76,1527.0
808525.01,6484523.75,500.76,3424.0
808360.74,6484525.640000001,500.76,1686.0
808526.6,6484531.43,500.76,3726.0
808485.5700000001,6484520.13,500.76,3899.0
808384.68,6484524.46,500.76,1454.0
808525.89,6484525.78,500.76,3585.0
808493.7000000001,6484520.16,500.76,3562.0
808501.9500000001,6484522.38,500.76,2067.0
808384.77,6484524.51,500.76,1559.0
808487.3,6484526.01,500.76,4316.0
808512.6,6484574.8,500.76,3633.0
808494.41,6484522.16,500.76,3050.0
808490.0700000001,6484519.600000001,500.77000000000004,3843.0
808487.47,6484520.68,500.77000000000004,3395.0
808487.47,6484521.59,500.77000000000004,3777.0
808477.67,6484523.41,500.77000000000004,3708.0
808485.27,6484525.65,500.77000000000004,4037.0
808486.43,6484525.46,500.77000000000004,3522.0
808509.18,6484591.95,500.77000000000004,3623.0
808475.0700000001,6484520.7,500.77000000000004,2889.0
808483.36,6484522.7700000005,500.77000000000004,3392.0
808482.36,6484522.0,500.77000000000004,3909.0
808489.79,6484523.91,500.77000000000004,2805.0
808488.34,6484523.33,500.77000000000004,2533.0
808483.3300000001,6484523.9,500.77000000000004,2913.0
808486.4500000001,6484522.08,500.77000000000004,3798.0
808480.84,6484523.71,500.77000000000004,3446.0
808480.11,6484523.41,500.77000000000004,3294.0
808483.87,6484521.75,500.77000000000004,2627.0
808483.6900000001,6484520.86,500.77000000000004,1865.0
808487.67,6484519.3,500.77000000000004,3994.0
808475.5,6484521.600000001,500.77000000000004,3253.0
808506.25,6484607.26,500.77000000000004,2743.0
808468.09,6484517.5,500.77000000000004,3434.0
808487.85,6484521.2700000005,500.77000000000004,3091.0
808527.46,6484542.78,500.77000000000004,3450.0
808483.52,6484521.850000001,500.77000000000004,2190.0
808484.79,6484522.05,500.77000000000004,3019.0
808482.59,6484523.71,500.77000000000004,3117.0
808486.12,6484525.44,500.77000000000004,4339.0
808512.4500000001,6484576.86,500.77000000000004,3217.0
808515.56,6484564.49,500.77000000000004,2897.0
808495.93,6484519.36,500.77000000000004,3303.0
808502.56,6484516.54,500.77000000000004,2379.0
808490.18,6484560.09,500.77000000000004,1190.0
808501.3300000001,6484519.38,500.77000000000004,4176.0
808501.0,6484519.47,500.77000000000004,3513.0
808525.71,6484522.86,500.77000000000004,3220.0
808526.81,6484531.640000001,500.77000000000004,4262.0
808490.02,6484521.390000001,500.77000000000004,3671.0
808527.09,6484539.75,500.77000000000004,1370.0
808377.75,6484540.45,500.77000000000004,1626.0
808526.93,6484540.28,500.77000000000004,1822.0
808527.2000000001,6484530.66,500.77000000000004,3445.0
808527.14,6484530.19,500.77000000000004,3816.0
808503.5800000001,6484516.43,500.77000000000004,3308.0
808527.1,6484534.32,500.77000000000004,3924.0
808511.18,6484579.0200000005,500.77000000000004,3607.0
808525.9400000001,6484522.59,500.77000000000004,3457.0
808492.03,6484519.7,500.77000000000004,3225.0
808497.96,6484522.65,500.77000000000004,3429.0
808531.16,6484565.19,500.77000000000004,2712.0
808485.84,6484521.12,500.77000000000004,4105.0
808486.62,6484521.850000001,500.77000000000004,4618.0
808485.36,6484521.49,500.77000000000004,3680.0
808487.35,6484522.51,500.77000000000004,3656.0
808496.63,6484518.22,500.77000000000004,3961.0
808488.43,6484520.94,500.77000000000004,3218.0
808473.21,6484517.86,500.77000000000004,3606.0
808468.8200000001,6484516.95,500.77000000000004,3796.0
808526.92,6484531.5,500.77000000000004,3469.0
808485.03,6484519.59,500.77000000000004,3356.0
808490.42,6484519.43,500.77000000000004,3489.0
808486.17,6484521.65,500.77000000000004,2340.0
808494.71,6484522.09,500.77000000000004,3495.0
808496.77,6484522.01,500.77000000000004,1976.0
808529.97,6484546.100000001,500.77000000000004,3096.0
808501.42,6484520.8100000005,500.77000000000004,3017.0
808474.11,6484518.59,500.78000000000003,3824.0
808466.88,6484552.69,500.78000000000003,2846.0
808488.73,6484521.03,500.78000000000003,3053.0
808468.15,6484551.62,500.78000000000003,2668.0
808482.18,6484523.68,500.78000000000003,3854.0
808486.8200000001,6484519.15,500.78000000000003,3588.0
808494.0800000001,6484519.7700000005,500.78000000000003,3178.0
808487.97,6484520.36,500.78000000000003,2752.0
808481.72,6484523.11,500.78000000000003,3865.0
808474.22,6484518.16,500.78000000000003,4316.0
808481.51,6484522.63,500.78000000000003,3882.0
808468.64,6484516.91,500.78000000000003,3598.0
808525.4400000001,6484521.18,500.78000000000003,3272.0
808450.5,6484557.46,500.78000000000003,994.0
808474.24,6484519.5600000005,500.78000000000003,4088.0
808534.9400000001,6484548.46,500.78000000000003,3807.0
808330.0800000001,6484518.62,500.78000000000003,2218.0
808526.98,6484527.69,500.78000000000003,3431.0
808525.43,6484520.2700000005,500.78000000000003,3341.0
808496.3300000001,6484518.29,500.78000000000003,4140.0
808495.03,6484519.71,500.78000000000003,3165.0
808385.28,6484533.140000001,500.78000000000003,3290.0
808484.1,6484521.23,500.78000000000003,2548.0
808490.99,6484518.8,500.78000000000003,3960.0
808501.91,6484516.82,500.78000000000003,3981.0
808484.41,6484519.78,500.78000000000003,2115.0
808525.03,6484520.71,500.78000000000003,3677.0
808487.79,6484521.68,500.78000000000003,3809.0
808495.6,6484519.26,500.78000000000003,2842.0
808463.77,6484520.22,500.78000000000003,2630.0
808526.5700000001,6484526.01,500.78000000000003,3541.0
808519.22,6484520.17,500.78000000000003,2034.0
808526.92,6484527.37,500.78000000000003,3412.0
808472.0,6484516.75,500.78000000000003,2729.0
808472.84,6484516.92,500.78000000000003,2630.0
808490.0700000001,6484519.54,500.78000000000003,4120.0
808482.81,6484521.61,500.78000000000003,3993.0
808525.52,6484520.3100000005,500.78000000000003,3526.0
808485.03,6484518.350000001,500.78000000000003,3287.0
808526.98,6484538.99,500.78000000000003,1820.0
808526.29,6484524.0200000005,500.78000000000003,3889.0
808484.7000000001,6484518.44,500.78000000000003,4054.0
808500.47,6484518.78,500.78000000000003,3429.0
808483.23,6484520.37,500.78000000000003,3714.0
808484.25,6484519.74,500.78000000000003,3508.0
808489.73,6484519.63,500.78000000000003,2974.0
808385.3300000001,6484559.7700000005,500.78000000000003,1120.0
808479.75,6484523.5200000005,500.78000000000003,3382.0
808493.1900000001,6484519.69,500.78000000000003,3914.0
808528.76,6484560.03,500.78000000000003,3655.0
808501.91,6484519.61,500.78000000000003,3276.0
808479.55,6484523.44,500.78000000000003,2943.0
808523.55,6484602.5600000005,500.78000000000003,2633.0
808487.31,6484522.03,500.79,4228.0
808507.75,6484598.62,500.79,1703.0
808527.4400000001,6484532.850000001,500.79,3874.0
808527.75,6484539.15,500.79,1460.0
808527.14,6484532.47,500.79,3658.0
808526.0800000001,6484520.600000001,500.79,3223.0
808514.7000000001,6484566.95,500.79,3349.0
808526.42,6484523.600000001,500.79,3645.0
808328.04,6484518.34,500.79,2064.0
808359.71,6484516.5200000005,500.79,6052.0
808474.9,6484519.76,500.79,3613.0
808478.5700000001,6484523.140000001,500.79,3320.0
808527.4400000001,6484534.390000001,500.79,3801.0
808383.75,6484522.78,500.79,3497.0
808515.8,6484562.59,500.79,3580.0
808458.01,6484517.03,500.79,2159.0
808496.4,6484517.8100000005,500.79,4619.0
808490.7000000001,6484517.62,500.79,3778.0
808511.3,6484596.41,500.79,1491.0
808475.7000000001,6484521.09,500.79,3192.0
808490.53,6484518.04,500.79,3477.0
808483.75,6484520.43,500.79,2869.0
808497.36,6484517.5600000005,500.79,3813.0
808499.62,6484518.49,500.79,3242.0
808495.6,6484525.63,500.79,3477.0
808482.74,6484520.72,500.79,3543.0
808527.9500000001,6484528.04,500.79,4095.0
808518.75,6484622.4,500.79,2877.0
808495.73,6484517.99,500.79,3747.0
808484.0700000001,6484520.34,500.79,2044.0
808476.17,6484521.84,500.79,3536.0
808478.28,6484522.51,500.79,3647.0
808484.52,6484518.49,500.79,4147.0
808498.47,6484518.24,500.79,3328.0
808349.3200000001,6484523.49,500.79,2859.0
808495.56,6484518.33,500.79,3758.0
808494.5800000001,6484519.45,500.79,3901.0
808506.39,6484607.38,500.79,2806.0
808500.98,6484518.140000001,500.79,3881.0
808526.4400000001,6484523.63,500.79,3313.0
808527.4400000001,6484534.61,500.79,4007.0
808355.05,6484525.5200000005,500.79,2025.0
808536.14,6484548.69,500.79,3248.0
808500.15,6484518.7,500.79,3424.0
808474.5700000001,6484517.32,500.8,3473.0
808529.5800000001,6484544.9,500.8,4142.0
808483.1,6484519.79,500.8,3672.0
808482.43,6484520.350000001,500.8,3775.0
808481.43,6484521.11,500.8,3623.0
808492.38,6484518.91,500.8,3685.0
808385.59,6484533.28,500.8,3363.0
808471.59,6484527.8100000005,500.8,1478.0
808474.6,6484518.19,500.8,3964.0
808475.23,6484519.8100000005,500.8,3585.0
808531.47,6484565.23,500.8,2270.0
808493.6900000001,6484516.8100000005,500.8,3560.0
808477.4500000001,6484522.29,500.8,4017.0
808480.16,6484522.84,500.8,4053.0
808510.65,6484579.68,500.8,3587.0
808358.18,6484582.34,500.8,2033.0
808527.1,6484541.21,500.8,3883.0
808486.97,6484517.7700000005,500.8,872.0
808480.73,6484522.8100000005,500.8,4159.0
808502.4,6484518.69,500.8,3150.0
808478.15,6484522.04,500.8,3614.0
808498.62,6484525.600000001,500.8,764.0
808525.77,6484517.33,500.8,2972.0
808495.71,6484518.83,500.8,3397.0
808526.36,6484521.33,500.8,3703.0
808526.68,6484522.66,500.8,3647.0
808500.31,6484518.3100000005,500.8,3325.0
808514.96,6484563.32,500.8,3083.0
808500.65,6484518.23,500.8,3569.0
808493.31,6484517.72,500.8,3341.0
808527.62,6484532.13,500.8,4339.0
808492.9400000001,6484519.0,500.8,2759.0
808499.53,6484518.07,500.8,3271.0
808486.3200000001,6484523.48,500.8,2599.0
808498.93,6484518.17,500.8,3562.0
808481.1,6484521.2,500.8,3823.0
808495.4,6484516.72,500.8,4218.0
808527.51,6484536.3100000005,500.8,3483.0
808474.52,6484519.67,500.8,4018.0
808511.51,6484580.36,500.8,3673.0
808511.73,6484598.88,500.8,726.0
808528.28,6484542.96,500.8,3352.0
808494.18,6484548.23,500.8,1313.0
808474.46,6484517.2700000005,500.8,4221.0
808371.25,6484570.0600000005,500.8,1259.0
808482.35,6484519.67,500.81,3714.0
808530.17,6484545.78,500.81,3377.0
808528.0700000001,6484534.92,500.81,4103.0
808526.54,6484520.03,500.81,3295.0
808527.92,6484527.57,500.81,3567.0
808478.79,6484522.8100000005,500.81,3700.0
808526.5,6484516.67,500.81,3467.0
808483.62,6484518.62,500.81,4352.0
808526.68,6484521.2700000005,500.81,3626.0
808495.0,6484581.76,500.81,4493.0
808491.03,6484517.08,500.81,3560.0
808490.6900000001,6484517.0,500.81,3570.0
808482.35,6484519.18,500.81,3646.0
808475.21,6484518.45,500.81,3575.0
808484.76,6484517.0,500.81,4061.0
808479.88,6484522.13,500.81,3603.0
808494.13,6484518.4,500.81,4603.0
808495.13,6484581.75,500.81,3072.0
808488.8,6484517.73,500.81,3847.0
808528.25,6484527.890000001,500.81,3627.0
808526.26,6484519.5600000005,500.81,3079.0
808494.38,6484516.62,500.81,4014.0
808501.05,6484516.600000001,500.81,3553.0
808481.49,6484520.63,500.81,4158.0
808479.75,6484521.61,500.81,3649.0
808492.87,6484516.74,500.81,4383.0
808491.36,6484516.7700000005,500.81,3886.0
808486.71,6484523.8100000005,500.81,4077.0
808486.41,6484516.25,500.81,2367.0
808487.21,6484516.92,500.81,1784.0
808498.03,6484517.38,500.81,4459.0
808501.16,6484517.0600000005,500.81,4107.0
808501.53,6484517.62,500.81,3916.0
808489.64,6484516.0600000005,500.81,912.0
808511.12,6484579.42,500.81,3886.0
808490.96,6484516.68,500.81,3403.0
808476.8200000001,6484521.65,500.81,3418.0
808511.81,6484576.8100000005,500.81,2921.0
808478.23,6484521.600000001,500.81,3281.0
808532.86,6484547.15,500.81,3526.0
808527.56,6484536.67,500.81,3818.0
808521.14,6484612.71,500.81,3270.0
808476.54,6484521.3,500.81,3410.0
808527.4500000001,6484538.09,500.82,4251.0
808482.02,6484519.08,500.82,4053.0
808483.16,6484517.61,500.82,3881.0
808528.36,6484526.75,500.82,3490.0
808529.53,6484544.0200000005,500.82,3853.0
808510.55,6484607.97,500.82,1000.0
808528.17,6484535.74,500.82,3574.0
808528.13,6484532.2700000005,500.82,3499.0
808526.91,6484517.7,500.82,3162.0
808528.17,6484535.91,500.82,3746.0
808528.1,6484529.91,500.82,3613.0
808499.31,6484516.13,500.82,3913.0
808496.98,6484516.42,500.82,2621.0
808499.48,6484517.53,500.82,3753.0
808362.81,6484561.46,500.82,3699.0
808528.41,6484534.58,500.82,3610.0
808356.3200000001,6484591.17,500.82,3484.0
808528.17,6484533.100000001,500.82,4172.0
808484.78,6484516.62,500.82,3806.0
808528.42,6484542.47,500.82,3795.0
808367.8200000001,6484585.63,500.82,2241.0
808488.31,6484517.42,500.82,3315.0
808491.29,6484516.59,500.82,4051.0
808478.5700000001,6484521.51,500.82,3803.0
808353.87,6484518.65,500.82,930.0
808499.6900000001,6484517.41,500.82,3198.0
808500.56,6484517.36,500.82,3341.0
808514.8,6484565.63,500.82,3002.0
808508.02,6484594.29,500.82,2727.0
808511.4400000001,6484579.5,500.82,3808.0
808491.23,6484516.2700000005,500.82,4263.0
808496.86,6484516.83,500.82,2130.0
808527.87,6484542.13,500.82,3591.0
808528.25,6484527.65,500.82,3665.0
808499.38,6484517.03,500.82,2915.0
808479.42,6484521.7,500.82,3433.0
808481.35,6484519.41,500.82,3104.0
808483.28,6484517.88,500.82,3755.0
808530.65,6484571.32,500.83,2099.0
808512.35,6484573.25,500.83,2403.0
808478.16,6484520.82,500.83,3269.0
808526.75,6484518.100000001,500.83,2847.0
808474.86,6484516.76,500.83,4393.0
808527.26,6484516.37,500.83,3293.0
808497.3300000001,6484516.04,500.83,1684.0
808498.56,6484516.34,500.83,3620.0
808481.4500000001,6484518.86,500.83,3215.0
808475.92,6484520.07,500.83,3338.0
808475.37,6484517.48,500.83,4300.0
808476.21,6484520.600000001,500.83,3176.0
808528.71,6484540.4,500.83,1313.0
808486.63,6484516.92,500.83,853.0
808528.42,6484533.94,500.83,3305.0
808489.29,6484517.05,500.83,2063.0
808527.53,6484523.350000001,500.83,3663.0
808514.48,6484565.69,500.83,2765.0
808495.1900000001,6484547.99,500.83,2667.0
808489.42,6484516.22,500.83,2450.0
808527.46,6484523.42,500.83,3394.0
808513.85,6484575.44,500.83,1525.0
808524.43,6484575.5600000005,500.83,2365.0
808384.62,6484524.04,500.83,624.0
808527.52,6484520.24,500.83,3100.0
808390.62,6484532.2,500.83,2302.0
808425.63,6484539.890000001,500.83,1716.0
808527.23,6484517.76,500.83,2906.0
808532.36,6484546.83,500.83,3507.0
808533.49,6484547.28,500.83,3863.0
808498.63,6484516.86,500.83,3328.0
808536.8,6484548.38,500.83,2903.0
808484.04,6484516.93,500.83,4163.0
808477.51,6484521.0200000005,500.84000000000003,3493.0
808528.14,6484524.9,500.84000000000003,3931.0
808482.51,6484516.96,500.84000000000003,3535.0
808497.3,6484516.5,500.84000000000003,1352.0
808496.36,6484522.67,500.84000000000003,790.0
808475.81,6484519.08,500.84000000000003,3271.0
808477.17,6484520.43,500.84000000000003,3643.0
808481.26,6484518.46,500.84000000000003,3875.0
808480.48,6484520.13,500.84000000000003,3838.0
808494.37,6484581.54,500.84000000000003,860.0
808504.09,6484611.74,500.84000000000003,2855.0
808511.61,6484579.91,500.84000000000003,3563.0
808404.3300000001,6484536.19,500.84000000000003,3701.0
808481.06,6484518.78,500.84000000000003,3467.0
808530.0,6484544.23,500.84000000000003,4034.0
808528.34,6484537.0,500.84000000000003,3499.0
808359.29,6484516.62,500.84000000000003,1742.0
808528.72,6484534.79,500.84000000000003,3791.0
808527.1,6484518.91,500.84000000000003,2635.0
808528.8,6484536.04,500.84000000000003,4560.0
808527.86,6484523.42,500.84000000000003,2929.0
808527.27,6484516.79,500.84000000000003,3341.0
808528.7000000001,6484561.15,500.84000000000003,2263.0
808528.67,6484580.68,500.84000000000003,3167.0
808480.74,6484519.17,500.84000000000003,3452.0
808407.97,6484535.93,500.84000000000003,2041.0
808528.5800000001,6484527.37,500.84000000000003,3742.0
808526.92,6484518.5200000005,500.84000000000003,3083.0
808359.13,6484577.88,500.84000000000003,1225.0
808519.75,6484622.23,500.85,3342.0
808512.11,6484576.890000001,500.85,3841.0
808527.75,6484578.96,500.85,1723.0
808500.23,6484516.8,500.85,3160.0
808481.14,6484518.07,500.85,3802.0
808475.79,6484518.82,500.85,3758.0
808525.02,6484597.0200000005,500.85,3052.0
808529.0800000001,6484533.8100000005,500.85,3560.0
808514.6,6484564.32,500.85,2997.0
808534.5,6484547.48,500.85,3320.0
808529.8300000001,6484543.09,500.85,3028.0
808528.67,6484536.94,500.85,3507.0
808528.76,6484531.44,500.85,3242.0
808529.27,6484528.8,500.85,4200.0
808478.36,6484520.32,500.85,3081.0
808528.8200000001,6484532.57,500.85,3722.0
808517.48,6484573.2700000005,500.85,1291.0
808527.6,6484516.87,500.85,3072.0
808516.9500000001,6484528.32,500.85,2621.0
808532.88,6484546.69,500.85,3634.0
808529.3,6484542.76,500.85,3757.0
808475.78,6484516.2700000005,500.85,3410.0
808482.13,6484517.78,500.85,3714.0
808476.76,6484518.41,500.85,4113.0
808529.66,6484571.5200000005,500.85,2778.0
808528.62,6484525.92,500.85,3705.0
808480.84,6484518.2700000005,500.85,3709.0
808385.78,6484556.88,500.85,1509.0
808506.73,6484601.45,500.86,3071.0
808477.0700000001,6484518.49,500.86,3765.0
808480.4500000001,6484518.59,500.86,3604.0
808358.68,6484580.24,500.86,1558.0
808479.73,6484519.390000001,500.86,3662.0
808476.17,6484516.78,500.86,3801.0
808479.42,6484520.16,500.86,3712.0
808478.04,6484518.8,500.86,3943.0
808526.18,6484577.99,500.86,574.0
808529.35,6484529.61,500.86,4002.0
808520.5,6484562.04,500.86,2447.0
808534.46,6484547.22,500.86,3823.0
808529.41,6484539.78,500.86,1419.0
808529.28,6484536.32,500.86,3775.0
808529.24,6484527.7,500.86,3784.0
808518.61,6484522.29,500.86,2096.0
808528.1900000001,6484523.61,500.86,3067.0
808475.8300000001,6484516.04,500.86,3480.0
808475.8300000001,6484516.04,500.86,3480.0
808348.99,6484523.75,500.86,2354.0
808476.96,6484519.76,500.86,3101.0
808529.2000000001,6484532.91,500.86,3571.0
808529.37,6484540.28,500.86,1179.0
808476.53,6484518.15,500.86,3697.0
808476.35,6484517.2,500.86,3675.0
808479.29,6484519.0600000005,500.86,3927.0
808529.26,6484539.46,500.86,1352.0
808476.84,6484518.97,500.86,3624.0
808516.96,6484528.7700000005,500.86,708.0
808480.01,6484517.54,500.87,3430.0
808478.14,6484518.390000001,500.87,4093.0
808529.56,6484537.8,500.87,3743.0
808478.72,6484519.0,500.87,3455.0
808478.5,6484518.86,500.87,3721.0
808479.9,6484517.97,500.87,3638.0
808481.22,6484516.58,500.87,3387.0
808528.01,6484521.32,500.87,3620.0
808392.93,6484535.17,500.87,882.0
808515.17,6484563.7700000005,500.87,3121.0
808482.5800000001,6484516.04,500.87,3518.0
808531.03,6484545.3,500.87,868.0
808527.87,6484520.29,500.87,3263.0
808528.54,6484523.55,500.87,3464.0
808529.86,6484528.5200000005,500.87,3581.0
808361.73,6484565.890000001,500.87,2689.0
808480.84,6484516.91,500.87,3414.0
808353.99,6484518.640000001,500.87,1988.0
808528.76,6484523.15,500.87,3634.0
808529.47,6484536.18,500.87,3719.0
808529.88,6484540.08,500.87,1428.0
808467.49,6484517.42,500.87,2681.0
808528.87,6484537.48,500.87,4332.0
808497.6900000001,6484517.01,500.87,3837.0
808527.9,6484518.73,500.87,2993.0
808528.91,6484525.53,500.87,3796.0
808527.89,6484517.37,500.87,2801.0
808498.3,6484516.29,500.87,3628.0
808530.88,6484544.67,500.88,3326.0
808528.8300000001,6484541.95,500.88,3877.0
808529.66,6484534.600000001,500.88,3876.0
808528.9500000001,6484525.55,500.88,3759.0
808528.29,6484519.16,500.88,3053.0
808502.67,6484516.2,500.88,2646.0
808528.64,6484521.88,500.88,3426.0
808530.27,6484526.26,500.88,3278.0
808356.81,6484588.04,500.88,2439.0
808529.6,6484539.5200000005,500.88,1378.0
808366.88,6484589.890000001,500.88,1377.0
808389.56,6484533.7,500.88,1727.0
808528.64,6484560.74,500.88,3157.0
808528.24,6484517.3,500.88,2932.0
808476.68,6484516.13,500.88,4379.0
808529.84,6484527.96,500.88,3990.0
808529.78,6484537.21,500.88,3860.0
808480.9,6484516.48,500.88,3819.0
808478.26,6484519.37,500.88,3449.0
808476.81,6484516.59,500.88,3784.0
808350.78,6484616.96,500.88,2817.0
808528.86,6484523.62,500.88,3615.0
808477.93,6484519.47,500.88,3519.0
808352.1,6484524.13,500.88,2750.0
808529.7000000001,6484536.73,500.88,3824.0
808365.5800000001,6484526.74,500.88,1931.0
808531.78,6484546.03,500.88,3469.0
808530.5,6484543.42,500.89,2505.0
808528.64,6484521.29,500.89,3343.0
808530.5,6484542.95,500.89,2695.0
808528.96,6484521.95,500.89,3132.0
808530.23,6484538.16,500.89,3478.0
808356.3,6484590.78,500.89,2405.0
808529.46,6484524.86,500.89,3811.0
808314.14,6484516.2,500.89,2653.0
808364.0,6484555.74,500.89,2700.0
808480.53,6484516.8,500.89,3787.0
808363.64,6484556.73,500.89,2671.0
808478.2000000001,6484517.92,500.89,3905.0
808477.63,6484516.41,500.89,3752.0
808530.09,6484539.15,500.89,1694.0
808510.5,6484592.53,500.89,943.0
808479.77,6484517.2,500.89,3434.0
808532.14,6484558.0600000005,500.89,931.0
808505.15,6484610.49,500.89,2946.0
808478.5800000001,6484517.57,500.89,3830.0
808511.78,6484576.16,500.89,3042.0
808408.79,6484540.45,500.89,1532.0
808526.81,6484578.4,500.89,2120.0
808526.23,6484594.32,500.89,1895.0
808529.77,6484531.05,500.89,3628.0
808527.76,6484520.72,500.89,2781.0
808477.96,6484517.38,500.90000000000003,3571.0
808325.9500000001,6484519.05,500.90000000000003,1647.0
808530.47,6484537.07,500.90000000000003,3744.0
808530.3,6484531.42,500.90000000000003,3627.0
808530.92,6484526.13,500.90000000000003,3309.0
808530.61,6484518.67,500.90000000000003,3342.0
808529.54,6484517.03,500.90000000000003,3298.0
808530.0,6484534.54,500.90000000000003,3596.0
808529.25,6484522.61,500.90000000000003,3382.0
808530.49,6484536.38,500.90000000000003,3980.0
808529.91,6484524.76,500.90000000000003,3475.0
808529.65,6484523.75,500.90000000000003,3085.0
808530.55,6484534.140000001,500.90000000000003,3797.0
808529.89,6484517.34,500.90000000000003,3580.0
808529.12,6484557.7,500.90000000000003,928.0
808530.61,6484542.51,500.90000000000003,2150.0
808530.09,6484533.19,500.90000000000003,4137.0
808530.25,6484532.67,500.90000000000003,3478.0
808478.9500000001,6484516.92,500.90000000000003,3511.0
808530.66,6484527.22,500.90000000000003,3714.0
808360.13,6484516.63,500.90000000000003,1149.0
808357.99,6484582.7,500.90000000000003,2770.0
808363.31,6484566.2700000005,500.90000000000003,5165.0
808480.23,6484516.2700000005,500.90000000000003,3928.0
808529.88,6484519.140000001,500.91,3261.0
808531.03,6484526.5200000005,500.91,3408.0
808530.16,6484523.22,500.91,3220.0
808531.06,6484533.78,500.91,4026.0
808529.8,6484521.19,500.91,3698.0
808529.86,6484517.84,500.91,3976.0
808479.51,6484516.5,500.91,3516.0
808530.5700000001,6484517.48,500.91,3298.0
808531.0800000001,6484537.54,500.91,4043.0
808530.86,6484539.8,500.91,1433.0
808357.86,6484582.2700000005,500.91,668.0
808478.21,6484516.100000001,500.91,3651.0
808494.87,6484582.03,500.91,5752.0
808534.81,6484546.5600000005,500.91,4207.0
808479.3,6484516.82,500.91,3557.0
808528.72,6484581.22,500.91,3169.0
808530.1900000001,6484516.890000001,500.91,3112.0
808530.09,6484519.32,500.91,3542.0
808531.98,6484545.49,500.91,2571.0
808530.13,6484521.2700000005,500.91,2652.0
808530.43,6484533.12,500.91,3718.0
808530.18,6484541.67,500.91,3476.0
808531.41,6484537.600000001,500.91,3717.0
808536.5800000001,6484547.25,500.91,3924.0
808355.51,6484594.62,500.91,2471.0
808517.4400000001,6484526.46,500.91,2558.0
808388.64,6484526.55,500.91,780.0
808530.78,6484541.47,500.92,2117.0
808530.78,6484541.47,500.92,2117.0
808440.8,6484612.19,500.92,2242.0
808385.09,6484533.46,500.92,3145.0
808506.29,6484606.37,500.92,2456.0
808362.65,6484561.22,500.92,1331.0
808354.4500000001,6484524.34,500.92,3004.0
808347.9400000001,6484522.2700000005,500.92,2427.0
808364.22,6484566.74,500.92,1632.0
808530.75,6484519.19,500.92,3336.0
808501.24,6484524.34,500.92,790.0
808524.4500000001,6484599.72,500.92,2614.0
808531.0700000001,6484525.68,500.92,3399.0
808529.61,6484522.07,500.92,3270.0
808497.67,6484571.7,500.92,3822.0
808360.03,6484621.13,500.92,929.0
